x,y,z
5.17125129699707,-3.136296510696411,2.7995238304138184
5.387528896331787,-2.569565773010254,2.7629246711730957
5.671940803527832,-2.037667989730835,2.789740562438965
6.05061674118042,-1.5112168788909912,2.8867721557617188
6.5961151123046875,-0.9605994820594788,3.085449695587158
7.5907392501831055,-0.33781254291534424,3.517116069793701
7.975764274597168,0.444441556930542,3.697587490081787
8.37067985534668,1.3148646354675293,3.9221715927124023
9.216850280761719,2.411926746368408,4.410002708435059
10.151688575744629,3.775845527648926,5.013571739196777
9.46211051940918,4.643622875213623,4.878874778747559
8.964249610900879,5.574882984161377,4.886385917663574
8.623462677001953,6.644596576690674,5.039170265197754
8.514241218566895,8.038243293762207,5.420017242431641
10.77806282043457,12.438335418701172,7.618341445922852
10.709747314453125,15.197826385498047,8.606082916259766
9.548355102539062,16.92188262939453,8.993806838989258
8.08816909790039,18.428226470947266,9.315587043762207
10.260994911193848,31.65700912475586,15.404091835021973
7.079099655151367,32.68281555175781,15.47920036315918
3.733942985534668,32.854774475097656,15.305887222290039
0.4266214370727539,32.75455093383789,15.162881851196289
-2.828866958618164,32.3901481628418,15.049992561340332
10.095556259155273,-80.76329040527344,39.92462921142578
10.561813354492188,-46.253509521484375,23.272424697875977
10.747749328613281,-31.93562889099121,16.528518676757812
10.845245361328125,-23.97715187072754,12.908534049987793
10.903496742248535,-18.82796859741211,10.672445297241211
10.94082260131836,-15.16243839263916,9.171626091003418
5.340131759643555,-6.02513313293457,3.9492220878601074
4.9964375495910645,-4.612442493438721,3.335524082183838
5.036362648010254,-3.791576385498047,3.092282295227051
5.182222366333008,-3.1429505348205566,2.972975730895996
5.39739990234375,-2.574273109436035,2.933265209197998
5.683525085449219,-2.041830539703369,2.9623522758483887
6.068123817443848,-1.5155892372131348,3.0679931640625
6.63049840927124,-0.9656068086624146,3.2867231369018555
7.6473541259765625,-0.3403325080871582,3.754918098449707
7.862127304077148,0.43810927867889404,3.8625407218933105
8.239602088928223,1.2942746877670288,4.091275215148926
9.02780532836914,2.3624563217163086,4.577463150024414
10.045434951782227,3.7363243103027344,5.257323265075684
9.365495681762695,4.596208095550537,5.11739444732666
8.872591972351074,5.517881393432617,5.125204086303711
8.532770156860352,6.574716567993164,5.283893585205078
8.417458534240723,7.946871757507324,5.678351402282715
10.758220672607422,12.415434837341309,8.058368682861328
10.687480926513672,15.166227340698242,9.100982666015625
9.397173881530762,16.653959274291992,9.37991714477539
7.947381973266602,18.107454299926758,9.699975967407227
9.94550895690918,30.683677673339844,15.821954727172852
6.743619918823242,31.133989334106445,15.626092910766602
3.5588817596435547,31.314424514770508,15.459338188171387
0.40679359436035156,31.232563018798828,15.321611404418945
-2.698352813720703,30.895780563354492,15.212804794311523
10.002296447753906,-80.01719665527344,41.8343391418457
10.504717826843262,-46.00348663330078,24.479969024658203
10.706419944763184,-31.81281280517578,17.413406372070312
10.81264877319336,-23.905086517333984,13.611082077026367
10.876387596130371,-18.781158447265625,11.259161949157715
10.917437553405762,-15.130032539367676,9.679206848144531
5.5937180519104,-6.31125020980835,4.375055313110352
5.037692070007324,-4.650525093078613,3.5567898750305176
5.059500694274902,-3.8089959621429443,3.285432815551758
5.199469566345215,-3.153411388397217,3.1546945571899414
5.413386344909668,-2.5818984508514404,3.1114187240600586
5.701871871948242,-2.0484204292297363,3.1431074142456055
6.094303131103516,-1.522127389907837,3.2587170600891113
6.6793622970581055,-0.9727230668067932,3.5016674995422363
7.548616409301758,-0.335938036441803,3.919940948486328
7.756997108459473,0.4322509765625,4.0304131507873535
8.120262145996094,1.2755284309387207,4.264277458190918
8.865265846252441,2.3199217319488525,4.753983497619629
9.952535629272461,3.701770305633545,5.50874137878418
9.27985954284668,4.554181098937988,5.362689018249512
8.791410446166992,5.4673943519592285,5.370841026306152
8.453696250915527,6.513789176940918,5.536482810974121
8.33761215209961,7.871487140655518,5.948480606079102
10.738012313842773,12.392111778259277,8.506546020507812
10.664813041687012,15.134063720703125,9.604819297790527
9.268470764160156,16.425861358642578,9.784372329711914
7.831235885620117,17.84282875061035,10.108816146850586
9.480433464050293,29.248851776123047,15.950876235961914
6.432001113891602,29.695297241210938,15.762542724609375
3.396097183227539,29.882112503051758,15.602025985717773
0.38834381103515625,29.816177368164062,15.469328880310059
-2.5768070220947266,29.50415802001953,15.364422798156738
9.908594131469727,-79.2676010131836,43.753013610839844
10.446908950805664,-45.750343322753906,25.702608108520508
10.664443016052246,-31.6881046295166,18.312198638916016
10.7794828414917,-23.831748962402344,14.325875282287598
10.848777770996094,-18.733478546142578,11.856727600097656
10.893603324890137,-15.097002983093262,10.196561813354492
10.923714637756348,-12.32494068145752,9.020195960998535
5.095003604888916,-4.703433036804199,3.7978157997131348
5.091757774353027,-3.8332784175872803,3.490722179412842
5.224125862121582,-3.168365001678467,3.3463735580444336
5.436537265777588,-2.592939615249634,3.298941135406494
5.728179931640625,-2.0578725337982178,3.33366060256958
6.130934715270996,-1.5312776565551758,3.4610862731933594
6.746969223022461,-0.9825687408447266,3.734315872192383
7.456707954406738,-0.33184778690338135,4.088106155395508
7.659758567810059,0.426832377910614,4.201783180236816
8.011619567871094,1.258462905883789,4.44179630279541
8.724896430969238,2.283188819885254,4.939567565917969
9.872907638549805,3.672154188156128,5.769347190856934
9.205126762390137,4.5175065994262695,5.616090774536133
8.720630645751953,5.423375129699707,5.624632835388184
8.386184692382812,6.461767196655273,5.798484802246094
8.274700164794922,7.812092304229736,6.232744216918945
10.717403411865234,12.368329048156738,8.963582038879395
10.641708374023438,15.101278305053711,10.118361473083496
9.160268783569336,16.234106063842773,10.209297180175781
7.736912727355957,17.627914428710938,10.543872833251953
9.047358512878418,27.912721633911133,16.0709285736084
6.141489028930664,28.35407829284668,15.889748573303223
3.2441978454589844,28.545589447021484,15.735170364379883
0.3718833923339844,28.5522518157959,15.63949966430664
-2.4632339477539062,28.203752517700195,15.50610065460205
9.814361572265625,-78.51375579833984,45.68271255493164
10.388313293457031,-45.49372863769531,26.941890716552734
10.621757507324219,-31.561256408691406,19.226160049438477
10.745699882507324,-23.757064819335938,15.053993225097656
10.8206205368042,-18.68485450744629,12.466086387634277
10.869281768798828,-15.063294410705566,10.724492073059082
10.90213394165039,-12.300591468811035,9.489664077758789
5.175111770629883,-4.7773847579956055,4.066333770751953
5.135462284088135,-3.8661820888519287,3.711258888244629
5.257760047912598,-3.1887640953063965,3.5502238273620605
5.468286514282227,-2.6080832481384277,3.49782133102417
5.7641143798828125,-2.070781707763672,3.5361523628234863
6.180581092834473,-1.5436769723892212,3.677974224090576
6.8403120040893555,-0.9961622953414917,3.9909114837646484
7.371274948120117,-0.32804566621780396,4.2600178718566895
7.56997013092041,0.4218292236328125,4.3773040771484375
7.912963390350342,1.2429661750793457,4.624567985534668
8.604106903076172,2.251579761505127,5.134856224060059
9.806922912597656,3.647611618041992,6.04099178314209
9.1415376663208,4.486298561096191,5.879186630249023
8.660481452941895,5.3859686851501465,5.888195037841797
8.330561637878418,6.418909072875977,6.071809768676758
8.229719161987305,7.76962423324585,6.534401893615723
10.696364402770996,12.344046592712402,9.430224418640137
10.61812973022461,15.067814826965332,10.642428398132324
9.07185173034668,16.077404022216797,10.658041954040527
7.663480758666992,17.46061134338379,11.009113311767578
8.642693519592285,26.664255142211914,16.18310546875
5.869753837585449,27.099523544311523,16.008731842041016
3.101999282836914,27.294315338134766,15.859824180603027
0.3564109802246094,27.364137649536133,15.800032615661621
-2.3567676544189453,26.98468780517578,15.638917922973633
-6.861739158630371,-49.439735412597656,-8.801107406616211
-1.8656549453735352,-49.3731689453125,-8.712044715881348
3.0799827575683594,-49.31699752807617,-8.712849617004395
8.078210830688477,-49.27006149291992,-8.8036470413208
12.414228439331055,-46.172882080078125,-8.430662155151367
12.050263404846191,-31.74506378173828,-5.987222671508789
11.850761413574219,-23.743928909301758,-4.679199695587158
11.723752975463867,-18.572582244873047,-3.8727197647094727
11.635037422180176,-14.892512321472168,-3.332350730895996
11.568968772888184,-12.090584754943848,-2.9506406784057617
11.517372131347656,-9.84559440612793,-2.6717238426208496
11.475547790527344,-7.972086429595947,-2.463803291320801
11.440598487854004,-6.35471773147583,-2.30759334564209
8.044261932373047,-3.466488838195801,-1.5445151329040527
7.606573581695557,-2.4092772006988525,-1.4069161415100098
7.445831775665283,-1.5605722665786743,-1.3414287567138672
7.428928375244141,-0.793880820274353,-1.3173789978027344
7.527433395385742,-0.04756173491477966,-1.327317714691162
7.758865833282471,0.7300925254821777,-1.3741412162780762
8.210282325744629,1.6127606630325317,-1.47536039352417
7.6844658851623535,2.3275177478790283,-1.4157676696777344
7.049612998962402,2.9328012466430664,-1.3463153839111328
6.598287105560303,3.5566861629486084,-1.3217177391052246
6.262703895568848,4.2343878746032715,-1.3330092430114746
6.030367374420166,5.024550437927246,-1.3840446472167969
5.9540815353393555,6.067159175872803,-1.4988999366760254
8.652923583984375,10.791558265686035,-2.438997268676758
11.110298156738281,17.11764144897461,-3.598334789276123
11.069790840148926,21.495014190673828,-4.263233661651611
11.012779235839844,27.94245719909668,-5.295867443084717
10.921502113342285,38.665470123291016,-7.084517478942871
10.739470481872559,60.68759536743164,-10.867112159729004
10.137929916381836,134.90286254882812,-23.85407257080078
-10.673666000366211,-49.496986389160156,-8.928272247314453
-5.570940971374512,-49.42159652709961,-8.769552230834961
-6.843904495239258,-49.31123733520508,-7.626605033874512
-1.8608617782592773,-49.24614715576172,-7.549618721008301
3.072056770324707,-49.19011306762695,-7.550337314605713
8.057209014892578,-49.141971588134766,-7.628787517547607
12.353672981262207,-45.94762420654297,-7.28889274597168
12.008460998535156,-31.63494300842285,-5.1837053298950195
11.818607330322266,-23.67949867248535,-4.054296016693115
11.69741439819336,-18.53085708618164,-3.3570995330810547
11.612537384033203,-14.8637113571167,-2.889578342437744
11.549156188964844,-12.069878578186035,-2.559152603149414
11.499506950378418,-9.830318450927734,-2.317613124847412
11.459132194519043,-7.960672855377197,-2.137510299682617
11.425268173217773,-6.346205711364746,-2.002169609069824
8.029587745666504,-3.4601659774780273,-1.3394408226013184
7.601840019226074,-2.40777850151062,-1.2215790748596191
7.4439802169799805,-1.5601837635040283,-1.1651549339294434
7.427937030792236,-0.7937743067741394,-1.1443963050842285
7.526079177856445,-0.047553300857543945,-1.1529779434204102
7.755580902099609,0.7297836542129517,-1.1933612823486328
8.2009859085083,1.6109344959259033,-1.2803540229797363
7.872457504272461,2.384457588195801,-1.2601237297058105
7.197706699371338,2.9944119453430176,-1.194261074066162
6.730168342590332,3.627774238586426,-1.171271800994873
6.390741348266602,4.320958137512207,-1.1818065643310547
6.167646408081055,5.138930797576904,-1.229842185974121
6.134653091430664,6.251161575317383,-1.3417510986328125
8.222253799438477,10.254446983337402,-2.013554096221924
11.087101936340332,17.081893920898438,-3.1197309494018555
11.042421340942383,21.44186782836914,-3.694782257080078
10.978974342346191,27.8566837310791,-4.586973190307617
10.876699447631836,38.5068359375,-6.129836559295654
10.672040939331055,60.30657958984375,-9.382173538208008
9.999251365661621,133.0573272705078,-20.441123962402344
-10.645528793334961,-49.366485595703125,-7.736512184143066
-5.556509971618652,-49.29361343383789,-7.5993194580078125
-6.826288223266602,-49.18429183959961,-6.466214179992676
-1.8561129570007324,-49.12063980102539,-6.40109920501709
3.0642290115356445,-49.06474685668945,-6.401700973510742
8.036462783813477,-49.01542282104492,-6.468055248260498
12.294118881225586,-45.72612380981445,-6.165964126586914
11.967231750488281,-31.526323318481445,-4.391210556030273
11.786846160888672,-23.615861892700195,-3.4370341300964355
11.671372413635254,-18.489606857299805,-2.847303867340088
11.590278625488281,-14.83523178100586,-2.4515380859375
11.529544830322266,-12.049383163452148,-2.1716794967651367
11.481822967529297,-9.815200805664062,-1.9670276641845703
11.442875862121582,-7.949388027191162,-1.8143854141235352
11.410086631774902,-6.3377685546875,-1.6996574401855469
8.027390480041504,-3.459219455718994,-1.1382617950439453
7.604833602905273,-2.408726215362549,-1.0387945175170898
7.4484148025512695,-1.5611133575439453,-0.9910144805908203
7.432814121246338,-0.7942965030670166,-0.9734196662902832
7.530837535858154,-0.047583192586898804,-0.9806919097900391
7.759472370147705,0.7301492691040039,-1.0149097442626953
8.201908111572266,1.6111153364181519,-1.0884714126586914
8.090689659118652,2.450557231903076,-1.100844383239746
7.364458084106445,3.063783645629883,-1.0386857986450195
6.877463340759277,3.7071709632873535,-1.01741361618042
6.534256935119629,4.417991638183594,-1.0271391868591309
6.324541091918945,5.269656658172607,-1.072004795074463
6.358342170715332,6.479098320007324,-1.1821269989013672
7.956836700439453,9.923430442810059,-1.6563467979431152
11.06416130065918,17.046560287475586,-2.6464033126831055
11.01537036895752,21.389347076416016,-3.133002281188965
10.945605278015137,27.772016525268555,-3.887240409851074
10.832568168640137,38.35060501098633,-5.189443588256836
10.605907440185547,59.932865142822266,-7.925771236419678
9.865230560302734,131.2737274169922,-17.14276885986328
-10.617731094360352,-49.237571716308594,-6.559137344360352
-5.542259216308594,-49.16716384887695,-6.443140029907227
-6.8088579177856445,-49.05873107910156,-5.318507194519043
-1.851430892944336,-48.99650573730469,-5.2650861740112305
3.056478977203369,-48.94073486328125,-5.265585422515869
8.015945434570312,-48.890262603759766,-5.3200201988220215
12.235477447509766,-45.50802230834961,-5.060283184051514
11.92652702331543,-31.419092178344727,-3.608731269836426
11.755441665649414,-23.552942276000977,-2.8266687393188477
11.645598411560059,-18.448776245117188,-2.3427343368530273
11.568235397338867,-14.807010650634766,-2.017727851867676
11.510116577148438,-12.029078483581543,-1.787775993347168
11.46429443359375,-9.800214767456055,-1.6195554733276367
11.426759719848633,-7.93818473815918,-1.4940567016601562
11.395030975341797,-6.329409122467041,-1.3997087478637695
8.037033081054688,-3.463374376296997,-0.9397521018981934
7.61530876159668,-2.412043809890747,-0.857783317565918
7.4589738845825195,-1.5633265972137451,-0.8183608055114746
7.443423748016357,-0.7954297065734863,-0.8038382530212402
7.541557788848877,-0.04765099287033081,-0.8098416328430176
7.770338535308838,0.7311721444129944,-0.8380789756774902
8.212641716003418,1.613223910331726,-0.898740291595459
8.351255416870117,2.5294790267944336,-0.9370055198669434
7.555074691772461,3.1430845260620117,-0.8786835670471191
7.044046401977539,3.796964168548584,-0.8592925071716309
6.697332382202148,4.528252601623535,-0.8681282997131348
6.5076165199279785,5.4221954345703125,-0.909576416015625
6.658760070800781,6.785220623016357,-1.0208516120910645
7.7629523277282715,9.681625366210938,-1.3325600624084473
7.553570747375488,11.637787818908691,-1.4898371696472168
10.988612174987793,21.337390899658203,-2.577241897583008
10.91263198852539,27.688364028930664,-3.195810317993164
10.789047241210938,38.19652557373047,-4.2620849609375
10.54096794128418,59.565895080566406,-6.495662212371826
9.735503196716309,129.5477752685547,-13.950277328491211
-10.590240478515625,-49.11007308959961,-5.394749641418457
-5.528161525726318,-49.04209518432617,-5.299576759338379
-7.118582725524902,-51.29032516479492,-4.3834733963012695
-1.8929777145385742,-50.09639358520508,-4.243818759918213
3.0614004135131836,-49.01946258544922,-4.157707214355469
7.995621204376221,-48.766334533691406,-4.183325290679932
12.177671432495117,-45.292991638183594,-3.970345973968506
11.886285781860352,-31.313074111938477,-2.835287094116211
11.724352836608887,-23.490652084350586,-2.222466468811035
11.620061874389648,-18.4083194732666,-1.8428072929382324
11.546380996704102,-14.779036521911621,-1.5876379013061523
11.490845680236816,-12.008936882019043,-1.4070053100585938
11.446904182434082,-9.785348892211914,-1.2748193740844727
11.410768508911133,-7.927081108093262,-1.176168441772461
11.38008975982666,-6.321110248565674,-1.1019916534423828
8.05831527709961,-3.4725446701049805,-0.7428021430969238
7.633195877075195,-2.417710065841675,-0.6778087615966797
7.475610733032227,-1.5668129920959473,-0.646580696105957
7.459720134735107,-0.7971711158752441,-0.6350803375244141
7.558197498321533,-0.04775625467300415,-0.6398353576660156
7.788117408752441,0.7328453063964844,-0.6621994972229004
8.233064651489258,1.6172358989715576,-0.7102699279785156
8.677024841308594,2.6281492710113525,-0.7674884796142578
7.777614593505859,3.2356667518615723,-0.7131009101867676
7.235647678375244,3.9002432823181152,-0.6958355903625488
6.886115550994873,4.655893802642822,-0.7036676406860352
6.727996826171875,5.6058197021484375,-0.7413358688354492
7.175817012786865,7.312097549438477,-0.8672637939453125
7.611781120300293,9.493091583251953,-1.0300464630126953
7.264848709106445,11.192953109741211,-1.1296014785766602
10.962109565734863,21.285919189453125,-2.026820182800293
10.88001537322998,27.605606079101562,-2.5118417739868164
10.746084213256836,38.04440689086914,-3.3465747833251953
10.477128982543945,59.20518493652344,-5.089756965637207
9.609748840332031,127.87423706054688,-10.855425834655762
-11.230209350585938,-52.077796936035156,-4.509860992431641
-5.748732566833496,-50.998836517333984,-4.3445281982421875
-8.110260009765625,-58.435516357421875,-3.658331871032715
-2.1471638679504395,-56.823055267333984,-3.526132106781006
3.441807270050049,-55.11056900024414,-3.4240851402282715
8.737546920776367,-53.29140853881836,-3.3487415313720703
12.120624542236328,-45.08082580566406,-2.8947486877441406
11.846471786499023,-31.208192825317383,-2.069962978363037
11.693546295166016,-23.428924560546875,-1.623741626739502
11.594733238220215,-18.368192672729492,-1.3469629287719727
11.524691581726074,-14.751276969909668,-1.1608009338378906
11.471712112426758,-11.988944053649902,-1.0289525985717773
11.429630279541016,-9.770586013793945,-0.9324274063110352
11.394880294799805,-7.916043281555176,-0.8603725433349609
11.365243911743164,-6.312867164611816,-0.8061857223510742
8.0914306640625,-3.4868133068084717,-0.5463557243347168
7.6585798263549805,-2.4257493019104004,-0.4981651306152344
7.498387813568115,-1.571587085723877,-0.4750804901123047
7.481762409210205,-0.7995266914367676,-0.46658992767333984
7.580813407897949,-0.04789900779724121,-0.47009944915771484
7.812887668609619,0.735175609588623,-0.4866194725036621
8.26330852508545,1.6231768131256104,-0.5222024917602539
9.123111724853516,2.763262987136841,-0.5911102294921875
8.045726776123047,3.347208261489868,-0.5403704643249512
7.461348056793213,4.0219035148620605,-0.5256199836730957
7.110633373260498,4.807696342468262,-0.5322613716125488
7.007511615753174,5.838712692260742,-0.5656085014343262
8.180669784545898,8.336034774780273,-0.7242579460144043
7.489935874938965,9.341127395629883,-0.7424626350402832
7.074979782104492,10.90042495727539,-0.8058362007141113
10.935834884643555,21.234901428222656,-1.4811410903930664
10.847716331481934,27.523645401000977,-1.8345270156860352
10.703621864318848,37.89408493041992,-2.441756248474121
10.414294242858887,58.85009765625,-3.7060165405273438
9.487661361694336,126.24964904785156,-7.850831985473633
-6.5414814949035645,-58.031612396240234,-3.6213464736938477
-9.418723106384277,-67.86312866210938,-2.7015581130981445
-2.5426158905029297,-67.28842163085938,-2.6551575660705566
3.9562153816223145,-63.347389221191406,-2.502716064453125
10.010528564453125,-61.05548095703125,-2.4396286010742188
12.06427001953125,-44.87123107910156,-1.8321571350097656
11.807031631469727,-31.104291915893555,-1.3118610382080078
11.662985801696777,-23.367706298828125,-1.0298080444335938
11.569584846496582,-18.32834815979004,-0.854649543762207
11.503144264221191,-14.723690032958984,-0.7367515563964844
11.4526948928833,-11.969069480895996,-0.6532020568847656
11.412459373474121,-9.755906105041504,-0.5920200347900391
11.379082679748535,-7.905067443847656,-0.5463371276855469
11.35047721862793,-6.30466365814209,-0.5119686126708984
8.136995315551758,-3.506450653076172,-0.34937477111816406
7.691709518432617,-2.4362435340881348,-0.3181428909301758
7.527476787567139,-1.5776840448379517,-0.3032674789428711
7.509703159332275,-0.8025124669075012,-0.2978024482727051
7.609569549560547,-0.048080772161483765,-0.3000617027282715
7.844859600067139,0.7381840944290161,-0.3106989860534668
8.303779602050781,1.6311262845993042,-0.33368444442749023
9.437447547912598,2.8584697246551514,-0.388824462890625
8.386205673217773,3.488853931427002,-0.3581528663635254
7.737154483795166,4.170572280883789,-0.34658336639404297
7.389373302459717,4.996160507202148,-0.35171985626220703
7.403181076049805,6.1683878898620605,-0.37996673583984375
8.08177375793457,8.235258102416992,-0.4549732208251953
7.389952659606934,9.216431617736816,-0.46581029891967773
6.934646129608154,10.684210777282715,-0.5022516250610352
10.909758567810059,21.18426513671875,-0.9395809173583984
10.81569766998291,27.442415237426758,-1.1630897521972656
10.661612510681152,37.74534606933594,-1.5465764999389648
10.35238265991211,58.500221252441406,-2.342569351196289
9.368965148925781,124.67019653320312,-4.929734230041504
-7.632352352142334,-67.70909881591797,-2.686751365661621
12.573102951049805,-76.68504333496094,-1.312643051147461
12.008533477783203,-44.66393280029297,-0.7812514305114746
11.767923355102539,-31.00126075744629,-0.5601320266723633
11.632638931274414,-23.306896209716797,-0.44000911712646484
11.544590950012207,-18.288755416870117,-0.36533164978027344
11.481714248657227,-14.696260452270508,-0.31502723693847656
11.433774948120117,-11.949298858642578,-0.27936363220214844
11.395368576049805,-9.741293907165527,-0.2532358169555664
11.363356590270996,-7.894143581390381,-0.23372364044189453
8.304045677185059,-4.612512111663818,-0.16045904159545898
8.19611644744873,-3.531928062438965,-0.1507558822631836
7.733015537261963,-2.4493274688720703,-0.13702154159545898
7.563172340393066,-1.585165023803711,-0.13053417205810547
7.543797969818115,-0.806156575679779,-0.12815618515014648
7.644740104675293,-0.048303186893463135,-0.1291370391845703
7.884397506713867,0.7419046759605408,-0.1337728500366211
8.355175018310547,1.6412220001220703,-0.1438307762145996
9.555109977722168,2.8941097259521484,-0.16864681243896484
8.869037628173828,3.6897239685058594,-0.1622638702392578
8.096673965454102,4.364363193511963,-0.15537357330322266
7.764621257781982,5.249876022338867,-0.1583251953125
8.894883155822754,7.411283493041992,-0.1955709457397461
7.99898099899292,8.150894165039062,-0.19290828704833984
7.307241439819336,9.113279342651367,-0.19731616973876953
6.825964450836182,10.51676082611084,-0.21178865432739258
10.8838529586792,21.133970260620117,-0.40155601501464844
8.42952823638916,21.38804054260254,-0.3883342742919922
6.149597644805908,21.771451950073242,-0.3821530342102051
10.291309356689453,58.155174255371094,-0.9976110458374023
9.253406524658203,123.13241577148438,-2.0857887268066406
12.476329803466797,-76.09471130371094,0.43413543701171875
11.953351020812988,-44.458675384521484,0.2591991424560547
11.72910213470459,-30.89900016784668,0.1860790252685547
11.602473258972168,-23.2464542388916,0.14627647399902344
11.519722938537598,-18.249366760253906,0.1215057373046875
11.460380554199219,-14.668959617614746,0.10480785369873047
11.414933204650879,-11.929608345031738,0.09296035766601562
11.378342628479004,-9.726740837097168,0.08428001403808594
11.347683906555176,-7.8832502365112305,0.07779598236083984
7.72466516494751,-4.290693759918213,0.04974699020385742
7.882877826690674,-3.3969454765319824,0.04832649230957031
7.783133506774902,-2.465200185775757,0.045966148376464844
7.605896472930908,-1.594119668006897,0.04375410079956055
7.584419250488281,-0.8104973435401917,0.042943477630615234
7.686721324920654,-0.048568546772003174,0.043276309967041016
7.932034969329834,0.7463871240615845,0.044855594635009766
8.418561935424805,1.653672695159912,0.048302650451660156
9.71959114074707,2.9439282417297363,0.05717754364013672
11.137816429138184,4.633586883544922,0.06791400909423828
8.643327713012695,4.659027576446533,0.055281639099121094
8.40536880493164,5.683103561401367,0.057122230529785156
8.81417465209961,7.344038486480713,0.06459236145019531
7.9297895431518555,8.080389976501465,0.06374073028564453
7.238777160644531,9.027897834777832,0.06515121459960938
6.7401251792907715,10.384512901306152,0.06970071792602539
10.858089447021484,21.083938598632812,0.13351726531982422
8.079754829406738,20.500566482543945,0.12405681610107422
5.926964282989502,20.98325538635254,0.12275886535644531
10.230999946594238,57.8143424987793,0.33055782318115234
9.140746116638184,121.63321685791016,0.6867446899414062
12.381011009216309,-75.5134048461914,2.1547012329101562
11.898661613464355,-44.25527572631836,1.290384292602539
11.690526962280273,-30.797361373901367,0.9275608062744141
11.572454452514648,-23.186317443847656,0.729680061340332
11.494956016540527,-18.210132598876953,0.6063728332519531
11.43912124633789,-14.64175033569336,0.523188591003418
11.396145820617676,-11.90997314453125,0.4641532897949219
11.361363410949707,-9.712230682373047,0.4208717346191406
7.5522780418396,-5.246581077575684,0.25893592834472656
7.362780570983887,-4.0896830558776855,0.23715496063232422
7.556323051452637,-3.256223201751709,0.23168373107910156
7.842954158782959,-2.4841480255126953,0.23165369033813477
7.656234264373779,-1.6046706438064575,0.22026681900024414
7.632075309753418,-0.8155899047851562,0.2161264419555664
7.736059188842773,-0.04887968301773071,0.2178354263305664
7.988511562347412,0.7517017126083374,0.22593212127685547
8.495484352111816,1.6687829494476318,0.24378585815429688
9.959640502929688,3.0166358947753906,0.29302310943603516
11.124418258666992,4.628015995025635,0.33927154541015625
11.100847244262695,5.983706951141357,0.3550987243652344
9.94217586517334,6.72218132019043,0.3379344940185547
8.747608184814453,7.288575172424316,0.3206062316894531
7.8724365234375,8.021947860717773,0.3164801597595215
7.182506084442139,8.957716941833496,0.32329797744750977
6.672124862670898,10.279743194580078,0.3450813293457031
10.832439422607422,21.03413200378418,0.6662073135375977
7.865084648132324,19.955888748168945,0.6039829254150391
5.780556678771973,20.464937210083008,0.5987954139709473
4.0367560386657715,22.811302185058594,0.6523013114929199
9.03076457977295,120.17010498046875,3.393280029296875
12.287022590637207,-74.94013214111328,3.8512697219848633
11.844400405883789,-44.053443908691406,2.313483238220215
11.652156829833984,-30.6962833404541,1.6651248931884766
11.542553901672363,-23.126407623291016,1.3108081817626953
11.470263481140137,-18.171005249023438,1.0897722244262695
11.417913436889648,-14.614601135253906,0.9405488967895508
11.377397537231445,-11.890380859375,0.8345937728881836
11.344412803649902,-9.697736740112305,0.7568864822387695
7.139091968536377,-4.959540367126465,0.4408440589904785
7.089625835418701,-3.937959671020508,0.4112873077392578
7.29900598526001,-3.145338773727417,0.40306854248046875
7.70937967300415,-2.441840648651123,0.41011762619018555
7.714966773986816,-1.616979718208313,0.39975786209106445
7.687437534332275,-0.8215054869651794,0.39208078384399414
7.793476581573486,-0.04924297332763672,0.3952474594116211
8.054827690124512,0.7579416036605835,0.41029882431030273
8.58814525604248,1.6869850158691406,0.4438629150390625
10.380060195922852,3.143975257873535,0.5500335693359375
11.111035346984863,4.6224446296691895,0.6103057861328125
11.086871147155762,5.976175308227539,0.6387434005737305
9.868985176086426,6.672693729400635,0.6041603088378906
8.69360065460205,7.243575096130371,0.5738725662231445
7.825677871704102,7.97429895401001,0.566617488861084
7.137001037597656,8.900965690612793,0.5785961151123047
6.618896484375,10.197733879089355,0.6165552139282227
10.773994445800781,20.920642852783203,1.1934051513671875
7.710662364959717,19.564085006713867,1.0664548873901367
5.672773361206055,20.08333969116211,1.058363914489746
3.8917126655578613,21.991666793823242,1.1326231956481934
8.923273086547852,118.7394027709961,6.038784027099609
12.19423770904541,-74.37419891357422,5.526092529296875
11.790510177612305,-43.853031158447266,3.32958984375
11.6139497756958,-30.59563636779785,2.399526596069336
11.512739181518555,-23.06667137145996,1.8902578353881836
11.445621490478516,-18.13197135925293,1.5721969604492188
11.396736145019531,-14.587489128112793,1.3573131561279297
11.358670234680176,-11.870802879333496,1.2046575546264648
7.687619209289551,-6.571737289428711,0.7415590286254883
6.848927021026611,-4.757961750030518,0.6114630699157715
6.867928504943848,-3.8148162364959717,0.5760402679443359
7.08540153503418,-3.0532898902893066,0.5657010078430176
7.470602035522461,-2.3662097454071045,0.5745797157287598
7.7831220626831055,-1.6312651634216309,0.583073616027832
7.7513861656188965,-0.8283395767211914,0.5715832710266113
7.859922885894775,-0.04966229200363159,0.5763192176818848
8.132325172424316,0.7652344107627869,0.5989136695861816
8.69974136352539,1.7089060544967651,0.6500740051269531
11.120101928710938,3.3681259155273438,0.8519287109375
11.09765338897705,4.616879940032959,0.8813152313232422
11.072896957397461,5.968642711639404,0.9223289489746094
9.812785148620605,6.634696960449219,0.8685197830200195
8.6510648727417,7.208134174346924,0.8256406784057617
7.788646697998047,7.9365644454956055,0.8153367042541504
7.101293563842773,8.856433868408203,0.8323431015014648
6.57851505279541,10.135518074035645,0.8859696388244629
6.731310844421387,13.070674896240234,1.077995777130127
7.593667030334473,19.267234802246094,1.518479347229004
5.59011173248291,19.79070472717285,1.5078706741333008
3.804056406021118,21.4963321685791,1.6006498336791992
8.818072319030762,117.33941650390625,8.627849578857422
12.102543830871582,-73.81493377685547,7.1812262535095215
11.736932754516602,-43.65373992919922,4.33980655670166
11.575868606567383,-30.495323181152344,3.1315345764160156
11.482979774475098,-23.007043838500977,2.4686193466186523
11.421002388000488,-18.09296989440918,2.05413818359375
11.375567436218262,-14.560396194458008,1.7739067077636719
11.339940071105957,-11.851229667663574,1.5747337341308594
6.974717617034912,-5.962314605712891,0.8809261322021484
6.620731353759766,-4.599432945251465,0.7739486694335938
6.6806721687316895,-3.7108042240142822,0.7336769104003906
6.902426719665527,-2.9744412899017334,0.7215757369995117
7.268488883972168,-2.3021936416625977,0.7319765090942383
7.846418857574463,-1.6445311307907104,0.7696619033813477
7.825070858001709,-0.8362139463424683,0.7555193901062012
7.936645030975342,-0.05014732480049133,0.7619714736938477
8.222818374633789,0.7737493515014648,0.7929167747497559
8.835052490234375,1.7354850769042969,0.864415168762207
11.107129096984863,3.3641932010650635,1.1141815185546875
11.084261894226074,4.6113057136535645,1.1525554656982422
11.05891227722168,5.961103916168213,1.206130027770996
9.77220630645752,6.607260227203369,1.1324987411499023
8.619288444519043,7.18165922164917,1.07708740234375
7.760776519775391,7.908166408538818,1.0637454986572266
7.0747528076171875,8.823331832885742,1.085759162902832
6.549802303314209,10.091279983520508,1.1549882888793945
6.625888347625732,12.865964889526367,1.389371395111084
7.503676414489746,19.038894653320312,1.9646682739257812
5.52602481842041,19.563812255859375,1.951714038848877
3.743159532546997,21.15220832824707,2.0622644424438477
8.714977264404297,115.96788787841797,11.164894104003906
12.011831283569336,-73.2616958618164,8.818662643432617
11.683609008789062,-43.45540237426758,5.345210075378418
11.537870407104492,-30.395206451416016,3.861898422241211
11.4532470703125,-22.947465896606445,3.0464935302734375
11.396384239196777,-18.053972244262695,2.5360841751098633
11.354386329650879,-14.533287048339844,2.190751075744629
11.321191787719727,-11.831636428833008,1.9451818466186523
6.633009433746338,-5.6702094078063965,1.0365595817565918
6.431425094604492,-4.467921733856201,0.9302201271057129
6.518409252166748,-3.6206741333007812,0.8857231140136719
6.74232816696167,-2.905451536178589,0.8720912933349609
7.093101978302002,-2.2466421127319336,0.8838138580322266
7.626106262207031,-1.5983558893203735,0.9255576133728027
7.910009860992432,-0.8452907800674438,0.9449477195739746
8.02530288696289,-0.0507073700428009,0.953312873840332
8.328802108764648,0.7837221026420593,0.99371337890625
9.001642227172852,1.7682085037231445,1.0897016525268555
11.09412956237793,3.360257625579834,1.3769474029541016
11.070841789245605,4.6057257652282715,1.4243278503417969
11.044903755187988,5.953551292419434,1.4904451370239258
9.74650764465332,6.589885711669922,1.397542953491211
8.597886085510254,7.163824558258057,1.329361915588379
7.741754531860352,7.8887834548950195,1.3129348754882812
7.057033538818359,8.801231384277344,1.340038776397705
6.532136917114258,10.064064025878906,1.425203800201416
6.593721389770508,12.80350399017334,1.7107133865356445
7.435101509094238,18.864904403686523,2.4086484909057617
5.476886749267578,19.389850616455078,2.3933606147766113
3.6996967792510986,20.90659523010254,2.5219955444335938
8.613840103149414,114.6219482421875,13.653885841369629
11.921993255615234,-72.71376037597656,10.440322875976562
11.630487442016602,-43.25782775878906,6.346844673156738
11.499920845031738,-30.29522705078125,4.591368675231934
11.423508644104004,-22.887880325317383,3.6244497299194336
11.37174129486084,-18.014934539794922,3.018533706665039
11.333168983459473,-14.506134033203125,2.6082725524902344
11.30240535736084,-11.812004089355469,2.3163862228393555
6.386004447937012,-5.459055423736572,1.1903796195983887
6.269320964813232,-4.355308532714844,1.0816106796264648
6.375267505645752,-3.5411674976348877,1.033301830291748
6.600083351135254,-2.8441531658172607,1.0182948112487793
6.9382219314575195,-2.1975862979888916,1.031203269958496
7.43675422668457,-1.5586698055267334,1.0766029357910156
8.008235931396484,-0.8557878136634827,1.1411409378051758
8.128130912780762,-0.05135691165924072,1.15169095993042
8.453807830810547,0.7954848408699036,1.203104019165039
9.212575912475586,1.8096429109573364,1.3302669525146484
11.081090927124023,3.3563051223754883,1.6405105590820312
11.057385444641113,4.600127696990967,1.696885108947754
11.030854225158691,5.945982933044434,1.7755556106567383
9.735504150390625,6.582442760467529,1.6651248931884766
8.586746215820312,7.154541015625,1.5836219787597656
7.731489181518555,7.87832498550415,1.5640082359313965
7.048039436340332,8.79001522064209,1.5963740348815918
6.525362014770508,10.053624153137207,1.6982369422912598
6.622000694274902,12.858412742614746,2.0493078231811523
7.384801387786865,18.737285614013672,2.8536272048950195
5.440619945526123,19.261451721191406,2.8359198570251465
3.6695926189422607,20.736480712890625,2.9837841987609863
8.514493942260742,113.3002700805664,16.09873390197754
11.832924842834473,-72.1705093383789,12.048046112060547
11.577510833740234,-43.06079864501953,7.345719337463379
11.461979866027832,-30.195281982421875,5.320669174194336
11.3937349319458,-22.82823944091797,4.203096389770508
11.347046852111816,-17.975814819335938,3.501955986022949
11.311898231506348,-14.478904724121094,3.0268898010253906
11.283561706542969,-11.79230785369873,2.688718795776367
6.189202308654785,-5.290821075439453,1.341376781463623
6.127538681030273,-4.256811618804932,1.2291250228881836
6.247314929962158,-3.4700939655303955,1.1772856712341309
6.472226619720459,-2.7890570163726807,1.1610126495361328
6.799663066864014,-2.153698682785034,1.1750164031982422
7.270709037780762,-1.5238674879074097,1.2237958908081055
8.025583267211914,-0.857641339302063,1.3296546936035156
8.248237609863281,-0.052116215229034424,1.3588361740112305
8.603044509887695,0.809527575969696,1.4235191345214844
9.494107246398926,1.8649442195892334,1.593937873840332
11.067999839782715,3.3523404598236084,1.905135154724121
11.043872833251953,4.594505310058594,1.970524787902832
11.016751289367676,5.938380718231201,2.0617637634277344
9.73952865600586,6.585165023803711,1.9368085861206055
8.586038589477539,7.153952598571777,1.8410978317260742
7.730119705200195,7.876929759979248,1.8181180953979492
7.047924995422363,8.789871215820312,1.8560400009155273
6.529773712158203,10.0604248046875,1.975839614868164
6.762363433837891,13.13096809387207,2.433195114135742
7.3511061668396,18.651782989501953,3.3027162551879883
5.416099548339844,19.174646377563477,3.2824087142944336
3.6509547233581543,20.631155014038086,3.4515652656555176
8.416805267333984,112.00018310546875,18.502857208251953
11.744527816772461,-71.63141632080078,13.643680572509766
11.52462387084961,-42.86409378051758,8.342886924743652
11.424007415771484,-30.095252990722656,6.05057430267334
11.363896369934082,-22.768451690673828,4.783005714416504
11.322277069091797,-17.936574935913086,3.986867904663086
11.290548324584961,-14.451579093933105,3.4470415115356445
6.931647300720215,-7.244179725646973,1.8845458030700684
6.024728775024414,-5.1502227783203125,1.4897866249084473
6.001636028289795,-4.169347286224365,1.3735694885253906
6.131770610809326,-3.4059135913848877,1.3183913230895996
6.356253147125244,-2.7390806674957275,1.3009343147277832
6.674460411071777,-2.114043712615967,1.3159613609313965
7.122973918914795,-1.4929039478302002,1.367931842803955
7.818445205688477,-0.8355055451393127,1.477928638458252
8.390089988708496,-0.0530124306678772,1.5770378112792969
8.78468132019043,0.826619029045105,1.6584672927856445
9.917709350585938,1.948153018951416,1.8997611999511719
11.05484390258789,3.3483588695526123,2.1710996627807617
11.030295372009277,4.588853359222412,2.2455215454101562
11.002580642700195,5.930738925933838,2.349368095397949
9.759519577026367,6.598681449890137,2.214357376098633
8.596237182617188,7.162450790405273,2.1031103134155273
7.7380218505859375,7.884978771209717,2.0765185356140137
7.057109832763672,8.801328659057617,2.120431423187256
6.546172618865967,10.085686683654785,2.260014533996582
9.835363388061523,19.098031997680664,4.037742614746094
7.333405017852783,18.60686683654785,3.759188652038574
5.402922630310059,19.127986907958984,3.73598575592041
3.643153667449951,20.587074279785156,3.9296884536743164
8.320634841918945,110.72021484375,20.869762420654297
11.656707763671875,-71.09573364257812,15.228883743286133
11.47177505493164,-42.66753387451172,9.33936595916748
11.385965347290039,-29.995025634765625,6.781792640686035
11.333962440490723,-22.70846939086914,5.364784240722656
11.297405242919922,-17.897178649902344,4.473773956298828
11.269098281860352,-14.424125671386719,3.869171142578125
6.373168468475342,-6.660519599914551,1.948594570159912
5.883274555206299,-5.029300212860107,1.6360692977905273
5.8885650634765625,-4.090797424316406,1.5156073570251465
6.026593208312988,-3.347493886947632,1.457226276397705
6.250298976898193,-2.693422317504883,1.4386372566223145
6.560433387756348,-2.0779263973236084,1.454641342163086
6.990093231201172,-1.4650533199310303,1.5096688270568848
7.639261722564697,-0.8163577318191528,1.6239776611328125
8.560478210449219,-0.0540890097618103,1.809549331665039
9.012764930725098,0.8480813503265381,1.9135313034057617
11.064035415649414,2.173328161239624,2.3834056854248047
11.041605949401855,3.3443477153778076,2.4386863708496094
11.01663589477539,4.5831756591796875,2.5221805572509766
10.988326072692871,5.9230546951293945,2.638660430908203
9.797138214111328,6.624117851257324,2.499856948852539
8.618168830871582,7.180724143981934,2.371185302734375
7.755846977233887,7.90314245223999,2.3406224250793457
7.076334476470947,8.825301170349121,2.3911218643188477
6.5760087966918945,10.131656646728516,2.553189754486084
9.85622501373291,19.13853645324707,4.550457000732422
7.332045078277588,18.603422164916992,4.2267866134643555
5.401312828063965,19.122297286987305,4.200223922729492
3.6466026306152344,20.606555938720703,4.423488616943359
8.225835800170898,109.45890808105469,23.202678680419922
11.56937026977539,-70.56307220458984,16.80538558959961
11.41891098022461,-42.47091293334961,10.336126327514648
11.347818374633789,-29.89453887939453,7.515069961547852
11.303899765014648,-22.648242950439453,5.949018478393555
11.272406578063965,-17.85757064819336,4.963168144226074
11.247527122497559,-14.396510124206543,4.293701171875
6.099884986877441,-6.374913215637207,2.0736446380615234
5.7592692375183105,-4.9232940673828125,1.7807235717773438
5.786128044128418,-4.019634246826172,1.6558160781860352
5.930241107940674,-3.2939741611480713,1.5943169593811035
6.152931213378906,-2.6514639854431152,1.574631690979004
6.455925941467285,-2.044826030731201,1.5915818214416504
6.869560241699219,-1.4397907257080078,1.649582862854004
7.481522560119629,-0.7995011210441589,1.7683405876159668
8.665532112121582,-0.054752856492996216,2.0366392135620117
9.315364837646484,0.8765557408332825,2.19899845123291
11.05097770690918,2.1707634925842285,2.6468658447265625
11.028274536132812,3.3403077125549316,2.708179473876953
11.002878189086914,4.57745361328125,2.800784111022949
10.973971366882324,5.915314674377441,2.9299707412719727
9.855069160461426,6.663285732269287,2.795900344848633
8.653105735778809,7.20983362197876,2.647091865539551
7.78460168838501,7.932443618774414,2.6120753288269043
7.10673713684082,8.86322021484375,2.669992446899414
6.621682643890381,10.202027320861816,2.858485221862793
9.925050735473633,19.272188186645508,5.094765663146973
7.348449230194092,18.645042419433594,4.7100725173950195
5.412222385406494,19.160905838012695,4.6794538497924805
3.6629538536071777,20.698972702026367,4.940321922302246
8.132299423217773,108.21432495117188,25.504581451416016
11.967824935913086,-191.6297607421875,49.71305847167969
11.482423782348633,-70.03273010253906,18.374847412109375
11.365976333618164,-42.27402877807617,11.334221839904785
11.30952262878418,-29.793643951416016,8.251188278198242
11.273681640625,-22.587692260742188,6.536334037780762
11.247254371643066,-17.81772232055664,5.455572128295898
11.225808143615723,-14.36871337890625,4.7211103439331055
5.900849342346191,-6.166903495788574,2.209929943084717
5.649080276489258,-4.829099178314209,1.9242362976074219
5.692691802978516,-3.9547231197357178,1.7947063446044922
5.841519355773926,-3.2446937561035156,1.730133056640625
6.063031196594238,-2.6127235889434814,1.709378719329834
6.359659671783447,-2.014334201812744,1.7272520065307617
6.759504795074463,-1.4167242050170898,1.7881817817687988
7.340916633605957,-0.7844758033752441,1.911515712738037
8.405388832092285,-0.05310940742492676,2.1763458251953125
9.768054008483887,0.9191529750823975,2.5402956008911133
11.03781509399414,2.168177604675293,2.9125022888183594
11.014833450317383,3.3362388610839844,2.979888916015625
10.98901081085205,4.571682929992676,3.081650733947754
10.959503173828125,5.907517910003662,3.223602294921875
9.937554359436035,6.719056606292725,3.1059446334838867
8.702938079833984,7.251353740692139,2.933016777038574
7.825756072998047,7.974380970001221,2.8928565979003906
7.150032997131348,8.917215347290039,2.9593749046325684
6.687161445617676,10.302907943725586,3.1802449226379395
10.066537857055664,19.546926498413086,5.692768096923828
7.385511875152588,18.73908042907715,5.215122222900391
5.437551498413086,19.25058937072754,5.1793437004089355
3.6960177421569824,20.885812759399414,5.491738319396973
8.039907455444336,106.98484802246094,27.77841567993164
11.726594924926758,-187.76739501953125,53.259212493896484
11.395774841308594,-69.50424194335938,19.938899993896484
11.312917709350586,-42.07667922973633,12.334643363952637
11.271038055419922,-29.69227409362793,8.990904808044434
11.24327278137207,-22.526765823364258,7.127354621887207
11.22192096710205,-17.777589797973633,5.951517105102539
11.203920364379883,-14.340697288513184,5.151856422424316
5.741921424865723,-6.000810623168945,2.3511962890625
5.550199508666992,-4.744571208953857,2.0670762062072754
5.607014179229736,-3.895203113555908,1.9327435493469238
5.759488582611084,-3.1991286277770996,1.8651108741760254
5.979710102081299,-2.5768184661865234,1.8432998657226562
6.270622730255127,-1.9861340522766113,1.862083911895752
6.658495903015137,-1.3955539464950562,1.9259281158447266
7.214425086975098,-0.7709577679634094,2.0539798736572266
8.192404747009277,-0.05176341533660889,2.3192591667175293
11.045438766479492,1.0393469333648682,3.1406984329223633
11.024528503417969,2.165567398071289,3.1806087493896484
11.00126838684082,3.332127571105957,3.254105567932129
10.975015640258789,4.565858840942383,3.3650951385498047
10.944903373718262,5.899646282196045,3.519890785217285
10.051512718200684,6.796106338500977,3.4348888397216797
8.770455360412598,7.307610511779785,3.23175048828125
7.88145637512207,8.031135559082031,3.185474395751953
7.208772659301758,8.990473747253418,3.262272357940674
6.779346466064453,10.444939613342285,3.525120258331299
10.381174087524414,20.157867431640625,6.4188337326049805
7.4486188888549805,18.899200439453125,5.750777244567871
5.480800151824951,19.403696060180664,5.707978248596191
3.7548389434814453,21.218196868896484,6.10005521774292
7.948543548583984,105.76897430419922,30.026905059814453
11.491981506347656,-184.01065063476562,56.70796585083008
11.309337615966797,-68.97709655761719,21.499155044555664
11.259679794311523,-41.87868118286133,13.338441848754883
11.232327461242676,-29.590293884277344,9.73499870300293
11.212638854980469,-22.465394973754883,7.722718238830566
11.196378707885742,-17.73712921142578,6.451569557189941
11.181838989257812,-14.31242847442627,5.586419105529785
5.609353065490723,-5.862264633178711,2.4955782890319824
5.460822582244873,-4.668167591094971,2.209695816040039
5.5281267166137695,-3.840399742126465,2.0703682899475098
5.683399200439453,-3.1568660736083984,1.9996566772460938
5.902255535125732,-2.543440818786621,1.9767909049987793
6.188007354736328,-1.9599663019180298,1.9964866638183594
6.565419673919678,-1.3760459423065186,2.0632548332214355
7.099847316741943,-0.7587139010429382,2.1961936950683594
8.012107849121094,-0.05062422156333923,2.464399814605713
11.032157897949219,1.0381009578704834,3.408243179321289
11.011103630065918,2.162931203842163,3.4514989852905273
10.987563133239746,3.327975273132324,3.5311546325683594
10.96087646484375,4.559975624084473,3.6514387130737305
10.930154800415039,5.891703128814697,3.8191843032836914
10.209074020385742,6.902637004852295,3.7904796600341797
8.859882354736328,7.38212251663208,3.547074317932129
7.954864978790283,8.105942726135254,3.493234634399414
7.286886215209961,9.087894439697266,3.582840919494629
6.911755084991455,10.648940086364746,3.9048209190368652
10.524096488952637,20.435409545898438,7.070043563842773
7.5482707023620605,19.152042388916016,6.331761360168457
5.5485520362854,19.643558502197266,6.278337001800537
3.8708295822143555,21.873634338378906,6.832391738891602
7.858089447021484,104.56562042236328,32.252830505371094
11.26348876953125,-180.35182189941406,60.06673812866211
11.2230224609375,-68.45063018798828,23.057188034057617
11.206210136413574,-41.67979431152344,14.346634864807129
11.193347930908203,-29.48761558532715,10.484280586242676
11.181748390197754,-22.403501510620117,8.323084831237793
